# .PCD v0.7 - Point Cloud Data file format
VERSION 0.7
FIELDS x y z
SIZE 4 4 4
TYPE F F F
COUNT 1 1 1
WIDTH 1349
HEIGHT 1
VIEWPOINT 0 0 0 1 0 0 0
POINTS 1349
DATA ascii
-0.0046993969 -0.30538699 0.0058899382
0.0052201636 -0.30422843 0.004426362
0.012015587 -0.30551404 0.0061902972
0.026722744 -0.3057546 0.0059569916
0.035363831 -0.30502394 0.0041316072
0.041322209 -0.30353504 0.005510116
0.47743797 -0.30270404 0.0055820942
0.48658001 -0.30479577 0.0039568665
0.49450079 -0.30526218 0.0047362512
0.51694411 -0.30527619 0.0058969883
0.52308756 -0.30439356 0.004915107
-0.0037152146 -0.29580328 0.0058614891
0.0055946806 -0.29665479 0.0060067209
0.011783451 -0.2970494 0.0081887245
0.026745019 -0.29574081 0.0062227291
0.034449585 -0.297048 0.005697961
0.47683233 -0.29471126 0.0095043182
0.48628584 -0.29668829 0.0045470744
0.49464041 -0.29626659 0.0067538572
0.51665884 -0.29494607 0.0071669645
0.52320814 -0.29642266 0.0063661016
0.48558944 -0.28998834 0.0093774199
0.08931157 -0.050193787 0.0069643855
0.098860607 -0.050497115 0.008384794
0.39552492 -0.050887376 0.0091886334
0.42289519 -0.051251173 0.0065501556
0.086583868 -0.043862738 0.0068423958
0.095168881 -0.044809844 0.0047674133
0.10457702 -0.043957092 0.0063346638
0.11572261 -0.045037366 0.005021777
0.12486049 -0.044475984 0.0054869568
0.13230965 -0.044218224 0.0058710473
0.38530567 -0.043730352 0.0066781491
0.39535451 -0.04488869 0.0056143715
0.40273842 -0.04292994 0.0066964114
0.41720852 -0.043990742 0.0062126047
0.4260582 -0.043589998 0.0066238469
0.43207148 -0.044309691 0.0067021409
0.077302843 -0.036695212 0.0067319274
0.086346224 -0.03464441 0.0054381164
0.094642594 -0.036542274 0.0051515037
0.10389586 -0.036528908 0.0048006224
0.11487174 -0.034770392 0.005698516
0.12383007 -0.03518055 0.0047547547
0.13257721 -0.036079194 0.0054172007
0.37741944 -0.036993444 0.0062086582
0.38560531 -0.03632006 0.0058199558
0.39446118 -0.035563778 0.006663437
0.40339881 -0.034964222 0.003933202
0.41481256 -0.035384852 0.0060667191
0.42528501 -0.035381921 0.0048525492
0.43204895 -0.034546781 0.0055877934
0.07763651 -0.028653929 0.0057061911
0.086353362 -0.025275413 0.006456953
0.094634563 -0.025776595 0.0044439421
0.10317025 -0.025788158 0.0044383677
0.11493438 -0.027018325 0.0078619206
0.12432846 -0.024897156 0.0052597043
0.13329022 -0.026328817 0.0038981647
0.37921143 -0.028480858 0.0087063313
0.3859421 -0.025187872 0.0053814957
0.39486319 -0.025313092 0.0048519229
0.4028782 -0.024822837 0.0041082203
0.41540119 -0.02551613 0.0077089947
0.42516306 -0.025117284 0.0051124296
0.43232441 -0.025479984 0.0059071854
0.085824996 -0.01582142 0.0056689763
0.095053799 -0.014953779 0.0051508672
0.10275384 -0.01581681 0.0044837683
0.11725613 -0.015841469 0.0060090534
0.1240197 -0.015471165 0.0049959091
0.13165191 -0.014591649 0.0063989982
0.37938955 -0.016177207 0.0054599345
0.38537595 -0.014776044 0.006781131
0.39537495 -0.015118619 0.0057331659
0.40329406 -0.016665721 0.0040907697
0.41598585 -0.014359996 0.0055329055
0.42504817 -0.014999365 0.0051584286
0.43170196 -0.017744914 0.004912239
0.087900907 -0.0074574202 0.0086867809
0.094460443 -0.0089140963 0.0079149231
0.10158098 -0.009978734 0.0050445199
0.11932611 -0.0086961016 0.003553316
0.12403876 -0.0085041216 0.0078891637
0.38591582 -0.0074974 0.0066154669
0.39356938 -0.007027477 0.0051239403
0.4036687 -0.008158043 0.0060541481
0.42361307 -0.0072977841 0.0054969192
0.43172163 -0.0074747242 0.0088863876
0.23710808 -0.51177341 0.013068084
0.24520877 -0.51333266 0.015020306
0.25418469 -0.51355368 0.017769981
0.26491368 -0.51293981 0.016039904
0.27599344 -0.51357871 0.015867928
0.28199151 -0.51180887 0.014070703
0.22898217 -0.50139314 0.01781404
0.23596025 -0.50494182 0.015314166
0.24332784 -0.50442761 0.014415778
0.25568494 -0.50490516 0.014593967
0.2657299 -0.5037505 0.014793199
0.27408275 -0.50534946 0.014979541
0.28299582 -0.50531793 0.013838782
0.22904907 -0.49666047 0.01393725
0.23504862 -0.49670851 0.015048038
0.24297298 -0.49405983 0.015506988
0.25608793 -0.49515229 0.013129714
0.26626945 -0.49610537 0.012182599
0.27550325 -0.49580058 0.014189029
0.28366891 -0.49585295 0.015238011
0.22892289 -0.4860425 0.015562296
0.23534794 -0.48490199 0.014278354
0.24355669 -0.48594373 0.013735118
0.25668347 -0.48401007 0.013250068
0.26533633 -0.48439863 0.013656572
0.27567711 -0.48504314 0.014126394
0.28403023 -0.48490131 0.014877005
0.22879378 -0.47512171 0.015845895
0.23595637 -0.47510737 0.014715361
0.2444797 -0.47483179 0.01502326
0.25444514 -0.47577685 0.015898114
0.26694095 -0.47704574 0.016135268
0.27449548 -0.47466919 0.014722692
0.28351206 -0.47419098 0.015759066
0.23635268 -0.4687697 0.016644297
0.24442191 -0.46740922 0.015854705
0.25363374 -0.46826974 0.015508586
0.266058 -0.46662641 0.018163523
0.27421111 -0.46750432 0.014665646
0.28196415 -0.46826029 0.015013609
0.022106424 -0.34034348 0.016453199
-0.011260509 -0.33225903 0.014938016
-0.0047274367 -0.33464372 0.016199378
0.0046728649 -0.33608487 0.015150178
0.013372798 -0.33520421 0.016955759
0.025011824 -0.33590591 0.016385591
0.034899052 -0.33602014 0.01561811
0.041894168 -0.33478197 0.015889134
0.47738883 -0.33387619 0.016581289
0.48623171 -0.33376411 0.015810519
0.49496034 -0.33454823 0.015434313
0.50516802 -0.33517727 0.017723583
0.51623791 -0.33411795 0.01509777
0.52349532 -0.33482638 0.014398813
-0.012062952 -0.32171446 0.015790194
-0.0050275158 -0.32527503 0.015803857
0.0045241215 -0.32515302 0.015531805
0.014871891 -0.32603297 0.014786644
0.025402648 -0.32716206 0.015305378
0.03679508 -0.32477397 0.016182829
0.041755747 -0.3265911 0.01488265
0.47429055 -0.32442638 0.015029626
0.48609841 -0.32593688 0.014502975
0.49548724 -0.32445824 0.016314732
0.50461638 -0.3245748 0.014896121
0.51455766 -0.32570502 0.015156393
0.52512705 -0.32518154 0.014691222
-0.01423911 -0.31196126 0.01502949
-0.004319455 -0.31456658 0.015398283
0.0026130576 -0.31701329 0.015537125
0.013724655 -0.31379613 0.012854445
0.024795376 -0.31504267 0.011937033
0.035977628 -0.31339696 0.014436012
0.042382587 -0.31524855 0.015054318
0.47415918 -0.31434029 0.015890758
0.48536319 -0.314161 0.014556919
0.49580815 -0.3146517 0.012846448
0.50495237 -0.3158021 0.013099195
0.51455021 -0.31454584 0.012619913
0.52489841 -0.31437755 0.015082119
-0.011684465 -0.30661157 0.015288361
-0.0042341757 -0.3044115 0.015213042
0.0032658924 -0.30490017 0.016338408
0.015013595 -0.3045243 0.013885275
0.025407197 -0.3041499 0.014843951
0.036193475 -0.30505806 0.014770692
0.041969426 -0.30478689 0.01558754
0.472509 -0.3066965 0.014936656
0.48577109 -0.30402341 0.013909313
0.49529928 -0.30439505 0.014342146
0.50557339 -0.3057946 0.015737802
0.51556319 -0.30443099 0.015116972
0.52525997 -0.30478626 0.015210566
-0.01103586 -0.2942346 0.017309308
-0.003715974 -0.29413727 0.015253372
0.0052478136 -0.29380599 0.014854076
0.012913681 -0.29433995 0.015357753
0.025640767 -0.29479155 0.015882401
0.03503703 -0.29406935 0.015340267
0.041166425 -0.29654941 0.015137968
0.47561923 -0.29539156 0.013082634
0.48655114 -0.29514483 0.01550541
0.4949322 -0.29354721 0.014666174
0.50564671 -0.29435799 0.016807662
0.51741379 -0.29458344 0.014877408
0.5242601 -0.29564345 0.015813889
-0.0056094527 -0.28954887 0.017313749
0.0062908456 -0.28888851 0.01693508
0.014462273 -0.28878453 0.016886732
0.02724947 -0.28905559 0.014964163
0.03597492 -0.28994703 0.016033381
0.48552945 -0.28807762 0.014789373
0.49813771 -0.28866774 0.018722296
0.50835758 -0.28798896 0.016578913
0.51730788 -0.28847247 0.015047826
0.24785338 -0.23348527 0.0174191
0.25751737 -0.23417212 0.017005771
0.26536241 -0.23471209 0.01740961
0.2748822 -0.23270971 0.018109836
0.23794031 -0.22371498 0.019665182
0.24515978 -0.22395541 0.017550776
0.25633878 -0.22610502 0.017547449
0.26539978 -0.22507942 0.017331919
0.27433804 -0.22631353 0.017935682
0.23801631 -0.21336602 0.018791258
0.24532062 -0.21459076 0.01604531
0.25660187 -0.216493 0.017550102
0.26541483 -0.21497862 0.018006394
0.27348828 -0.21625257 0.017559608
0.24733262 -0.20686826 0.016496215
0.25619742 -0.20729832 0.017619928
0.26343006 -0.20735931 0.016558453
0.27195397 -0.20770732 0.017874092
0.087256171 -0.050799627 0.016914448
0.094100684 -0.051048126 0.015640173
0.10393216 -0.051283777 0.017402805
0.11552545 -0.051220514 0.015934717
0.1250243 -0.050379574 0.017166708
0.13150187 -0.052067876 0.016784009
0.38698888 -0.051624358 0.01375965
0.40374193 -0.051217951 0.018577123
0.41731843 -0.052198291 0.016103759
0.42464957 -0.051151872 0.014745645
0.43213475 -0.051967144 0.01919904
0.079316914 -0.046595573 0.016875625
0.087559901 -0.045314081 0.014345846
0.093668886 -0.046058457 0.015104981
0.10475149 -0.0459099 0.015477296
0.11616375 -0.044890676 0.015688688
0.12516198 -0.046969391 0.014560022
0.13321809 -0.04412904 0.014577446
0.37980187 -0.042931333 0.017881393
0.3847065 -0.043771129 0.013187374
0.39512941 -0.045434374 0.015091258
0.40321374 -0.045495182 0.014724274
0.41474354 -0.045917656 0.016979069
0.42484587 -0.044109188 0.014004127
0.43302545 -0.044972748 0.015870897
0.078588657 -0.037221596 0.015965492
0.084565863 -0.035883918 0.014846903
0.092325836 -0.035600316 0.014364554
0.1049174 -0.035885189 0.014496202
0.11452943 -0.035925876 0.01350271
0.12313469 -0.035801802 0.014060898
0.13335551 -0.035457816 0.014415919
0.37771004 -0.030204713 0.011230648
0.38596192 -0.034223158 0.014274221
0.39385763 -0.03472 0.01530001
0.40571526 -0.034919329 0.015521686
0.41407818 -0.035353463 0.013901809
0.42442361 -0.036004297 0.015118044
0.43333972 -0.034908842 0.015412291
0.078662105 -0.024094095 0.018013934
0.08642941 -0.024623584 0.014616743
0.092108607 -0.025676124 0.0142379
0.1052494 -0.024622295 0.013234207
0.11495924 -0.023936246 0.014402148
0.12409244 -0.025714854 0.014068895
0.13385722 -0.025409363 0.013949094
0.37985963 -0.028599322 0.011955917
0.38381532 -0.025218617 0.014371971
0.39324433 -0.024769098 0.013847624
0.40538198 -0.024739016 0.014861703
0.41489261 -0.024138546 0.013035676
0.42498761 -0.025158007 0.015135057
0.43290353 -0.025463816 0.014648697
0.079110503 -0.010389 0.015578598
0.086878158 -0.014004704 0.014829327
0.093756832 -0.013310353 0.014610809
0.10427368 -0.015244746 0.014522393
0.11589386 -0.016821241 0.01484826
0.12397297 -0.014591339 0.01290984
0.13245213 -0.014851113 0.014263433
0.37876675 -0.012350112 0.010338455
0.38497156 -0.014864941 0.014842427
0.39419764 -0.015141974 0.014467377
0.40300241 -0.015653774 0.014914237
0.41633198 -0.017569281 0.014486366
0.4247261 -0.014663986 0.014909218
0.43265939 -0.014981602 0.014296268
0.079375803 -0.0073155463 0.015833616
0.0859726 -0.0064759254 0.014258954
0.094573498 -0.0064791045 0.01614294
0.10359048 -0.0069840867 0.016759051
0.11501956 -0.0059602913 0.016944738
0.12491424 -0.0071924636 0.016443804
0.13206169 -0.0078547895 0.016452573
0.37899706 -0.0065499842 0.018466592
0.38654116 -0.007327761 0.016528895
0.39521316 -0.0063342452 0.015056735
0.40439236 -0.0062783114 0.015889516
0.41748548 -0.0052793226 0.01788942
0.42482033 -0.0075756535 0.014769142
0.43118981 -0.0077247438 0.016596124
0.23561665 -0.51343668 0.024554048
0.24635072 -0.51315367 0.025254451
0.25512111 -0.51323611 0.024979435
0.26503569 -0.51311761 0.02444816
0.27484071 -0.51349032 0.024516571
0.28307828 -0.51294839 0.023325499
0.23586427 -0.5049215 0.025136765
0.243331 -0.50610405 0.023337286
0.25668737 -0.50647265 0.023838492
0.26511905 -0.50614017 0.024011839
0.27620593 -0.50482994 0.024920704
0.28393948 -0.505023 0.025242113
0.23604654 -0.49594438 0.025929455
0.24315929 -0.49457487 0.025400279
0.2758491 -0.49661717 0.024790619
0.2842049 -0.49524516 0.025200963
0.22996536 -0.48622048 0.0202052
0.23521145 -0.48446146 0.025326807
0.24246833 -0.48519924 0.025437588
0.26827803 -0.48397905 0.024859503
0.2773712 -0.48568195 0.025898863
0.28370264 -0.48504046 0.025112314
0.23547287 -0.47476175 0.025578486
0.24485958 -0.47444052 0.025244571
0.25607258 -0.47412694 0.025125107
0.26503283 -0.47401854 0.024495825
0.27547127 -0.47493345 0.025405282
0.28322658 -0.47430882 0.024365548
0.23675075 -0.46770987 0.026313314
0.24603751 -0.46731356 0.025843183
0.25504833 -0.46731636 0.02372326
0.2661576 -0.4674139 0.025428424
0.27524227 -0.46774659 0.024876557
0.28188452 -0.46717301 0.026329046
0.0211097 -0.34153271 0.027379602
0.48398566 -0.34041691 0.027102292
0.50553888 -0.34034014 0.027083218
-0.012565721 -0.33624291 0.025740623
-0.0042811148 -0.33440465 0.025696097
0.0053057112 -0.33625188 0.024758974
0.014875333 -0.33545637 0.024582518
0.024980418 -0.33536887 0.023953637
0.03405695 -0.33608419 0.023824301
0.041200936 -0.33426818 0.025959304
0.47533771 -0.33444437 0.024943884
0.48737264 -0.33401042 0.025374761
0.49499178 -0.33466086 0.024416637
0.50479817 -0.33470988 0.02511332
0.5149104 -0.33494949 0.02464962
0.52404732 -0.33458513 0.024628064
-0.011538264 -0.32568833 0.026166663
-0.0040185824 -0.32441241 0.025122553
0.0026988029 -0.32613117 0.023761727
0.013641464 -0.32855365 0.022790138
0.026407443 -0.32616347 0.023456899
0.036503162 -0.32581565 0.02674591
0.042515088 -0.32515272 0.025345463
0.47533676 -0.32317558 0.025843205
0.48540765 -0.32511035 0.025917888
0.49468511 -0.32790092 0.02436623
0.5048992 -0.32735151 0.023551911
0.51508749 -0.32625479 0.025579039
0.52454042 -0.32491276 0.025026113
-0.012649703 -0.31397086 0.025891174
-0.0039986367 -0.31431952 0.024197793
0.00057089329 -0.31615862 0.02596576
0.023812771 -0.31898695 0.027483284
0.035650149 -0.31438956 0.026650928
0.041803833 -0.31560346 0.026785834
0.47551283 -0.31549025 0.025002183
0.48584235 -0.31498691 0.025498573
0.51718259 -0.31408098 0.025531236
0.52521497 -0.31499785 0.025465805
-0.011815995 -0.30422071 0.025394386
-0.0049428511 -0.30451149 0.024441207
0.0057933927 -0.30339679 0.025411196
0.014991648 -0.30180794 0.024755117
0.026309755 -0.3032707 0.023045408
0.036999479 -0.30222327 0.026307087
0.042102136 -0.30579352 0.026387107
0.47395429 -0.30433398 0.024552595
0.48584858 -0.30539727 0.024683906
0.49568236 -0.30240676 0.024318976
0.50575221 -0.30051756 0.021614946
0.51555955 -0.30379573 0.02589062
0.52502084 -0.30536532 0.02479706
-0.010863923 -0.29742974 0.02591607
-0.0043598241 -0.29522946 0.025126999
0.0052634771 -0.29309216 0.024122337
0.015685532 -0.29382756 0.02480245
0.024854273 -0.29355207 0.024781397
0.035521511 -0.29427245 0.024288682
0.042493649 -0.29670188 0.025876218
0.47616521 -0.2958464 0.025121981
0.4869037 -0.29453996 0.024270019
0.49471667 -0.29322225 0.025965199
0.50511825 -0.29488549 0.025922352
0.5144363 -0.29370296 0.024249775
0.52395016 -0.29392749 0.02513008
-0.0052198097 -0.28963596 0.023332238
0.0053506792 -0.2894536 0.025682459
0.015202053 -0.28923243 0.024398386
0.024104128 -0.28940126 0.028261274
0.037504554 -0.28967112 0.025680482
0.47825211 -0.28846312 0.027572453
0.48711056 -0.28951886 0.024547666
0.49594873 -0.28893703 0.025250142
0.50752753 -0.28875321 0.024503294
0.51573533 -0.28939858 0.027586328
0.52421516 -0.2892707 0.02454837
0.2653859 -0.2402851 0.026003674
0.23761828 -0.23088688 0.023566142
0.24605946 -0.23474698 0.024931062
0.2548703 -0.2344812 0.025004813
0.26379827 -0.23572646 0.024905084
0.27451435 -0.23390037 0.025213698
0.2824446 -0.23119318 0.020789854
0.23829122 -0.22560914 0.022887122
0.24578513 -0.22527814 0.024710013
0.25455874 -0.22515118 0.024045857
0.26499203 -0.22475289 0.024591964
0.27545488 -0.22545123 0.024500966
0.28022301 -0.22426929 0.02451393
0.23593807 -0.21615218 0.023427352
0.24656427 -0.2161181 0.023544388
0.25457424 -0.21501765 0.024600057
0.26416248 -0.21442838 0.023394272
0.27535567 -0.21529166 0.025128905
0.28140458 -0.21783201 0.025021939
0.24588323 -0.20809971 0.025299387
0.25510931 -0.20738363 0.025719598
0.2639336 -0.20691326 0.025466083
0.27218881 -0.2075212 0.026816206
0.086930543 -0.053501844 0.021526694
0.097110696 -0.050808981 0.024755782
0.10445757 -0.051028799 0.02413613
0.11349571 -0.05120714 0.023377493
0.12394418 -0.051452138 0.024136715
0.13432312 -0.051037908 0.023799658
0.37836432 -0.052503347 0.026536047
0.38935181 -0.052784085 0.021378011
0.3991119 -0.051226974 0.025952877
0.40232557 -0.050419353 0.02535891
0.41473484 -0.051143669 0.024800997
0.42100787 -0.050672978 0.023616195
0.43434572 -0.050248742 0.021468183
0.078560367 -0.043486774 0.023202091
0.086695932 -0.044396337 0.023363456
0.093931451 -0.04627176 0.024498606
0.10544888 -0.046888914 0.025425518
0.11478747 -0.046351228 0.025169468
0.12477385 -0.046109509 0.024738412
0.13313419 -0.046169505 0.025202284
0.38594151 -0.044731755 0.025053704
0.39515415 -0.045586377 0.024343984
0.40461293 -0.045542855 0.025464948
0.41520512 -0.045271765 0.024293849
0.42508718 -0.046450939 0.023880189
0.43187472 -0.045081981 0.025009049
0.079926983 -0.033784151 0.029701412
0.086451493 -0.035270326 0.024619695
0.091729574 -0.034819767 0.024624459
0.10183966 -0.038897693 0.020428598
0.11782223 -0.03464067 0.028090119
0.12572721 -0.034648541 0.02167421
0.13387375 -0.034871437 0.023915252
0.37964037 -0.032939196 0.026552349
0.38610953 -0.033608731 0.023888851
0.39306712 -0.035041541 0.023952372
0.40349445 -0.038015742 0.023519048
0.41918513 -0.03749527 0.024540305
0.42629609 -0.036292695 0.02425495
0.43316174 -0.035394993 0.02562836
0.076396793 -0.022661507 0.027205447
0.085579865 -0.025797863 0.024595473
0.091745056 -0.024933411 0.024496498
0.11895382 -0.025857031 0.024074197
0.12585185 -0.025878366 0.024069544
0.13319767 -0.024425445 0.024551682
0.37883109 -0.027730092 0.02077353
0.38568601 -0.025234709 0.024596073
0.39261323 -0.02480739 0.024325514
0.41707659 -0.023393979 0.02459795
0.42615941 -0.02491047 0.02451914
0.43277535 -0.026228402 0.025219413
0.079711378 -0.019337714 0.020770848
0.086524382 -0.01437266 0.025004903
0.092865713 -0.014754998 0.025118556
0.10583664 -0.014333342 0.024730979
0.11493807 -0.013955005 0.024796301
0.12441041 -0.015202772 0.023042789
0.13290682 -0.014125424 0.024651716
0.37898874 -0.017125333 0.021402756
0.38542154 -0.014913939 0.025714029
0.39420322 -0.014899248 0.024638033
0.40585577 -0.014441181 0.024381425
0.41532254 -0.013813732 0.024532529
0.42552888 -0.014007164 0.023861459
0.43343046 -0.015675599 0.02557754
0.08518742 -0.0064123524 0.024475528
0.095207565 -0.0066480725 0.024661468
0.10370371 -0.006804686 0.025530942
0.11450223 -0.0067492588 0.025514916
0.12474872 -0.007135761 0.024651106
0.13181414 -0.0063142153 0.024394071
0.38645282 -0.0053226408 0.024665419
0.3949545 -0.0061224271 0.024995508
0.40485826 -0.0058909827 0.025498934
0.41517854 -0.0058576632 0.025851034
0.42537755 -0.0063099083 0.025014676
0.43208522 -0.0055208821 0.02418505
0.23723008 -0.51327288 0.034987107
0.24484654 -0.51333272 0.033645511
0.25595483 -0.51290846 0.034834843
0.26478791 -0.51301146 0.034408584
0.2736342 -0.51318753 0.033907995
0.28286478 -0.51219165 0.033139411
0.22934821 -0.50680673 0.030185044
0.23429777 -0.50557673 0.034590967
0.2443627 -0.50450915 0.034952272
0.2543456 -0.50547236 0.035356157
0.26452234 -0.50582391 0.035158992
0.27415338 -0.50418377 0.034699231
0.28311992 -0.50563794 0.035685278
0.22912264 -0.49379086 0.035577714
0.23608319 -0.49481764 0.03386315
0.24332532 -0.49550557 0.035475563
0.2511856 -0.49624035 0.0390248
0.26615778 -0.49527752 0.03772762
0.27364752 -0.49418318 0.036134306
0.28428596 -0.49578467 0.03502984
0.22854222 -0.48165202 0.031434983
0.23636815 -0.48531944 0.034339499
0.24398282 -0.48500502 0.034951534
0.25635722 -0.48598835 0.037186734
0.26319745 -0.48527086 0.038554948
0.27492857 -0.4846622 0.035293221
0.28412569 -0.48511702 0.033564486
0.23664741 -0.47638971 0.033949725
0.24460916 -0.47491711 0.034013353
0.25493932 -0.47326735 0.035376221
0.26386353 -0.47315407 0.034831394
0.27747676 -0.474875 0.035392754
0.28373846 -0.4753882 0.033914678
0.23359814 -0.46726552 0.035777427
0.24470197 -0.4656609 0.03512926
0.25516275 -0.46718845 0.035342176
0.26534969 -0.46734399 0.034798898
0.27448604 -0.46758646 0.034501743
0.28227782 -0.46798933 0.032491524
0.010069221 -0.34006095 0.037786067
0.027917564 -0.34031737 0.031565428
-0.012172555 -0.33556139 0.031366348
-0.0041286978 -0.33440113 0.034410205
0.005217839 -0.33293965 0.033541206
0.014689754 -0.33531237 0.033497304
0.024898592 -0.33480161 0.033533439
0.034316879 -0.33392191 0.033650924
0.041776281 -0.33370885 0.035650972
0.47761831 -0.33395246 0.034615923
0.48668167 -0.33421478 0.035147831
0.49413785 -0.33521697 0.035270024
0.5052799 -0.33555612 0.033913318
0.51578569 -0.3344067 0.035399009
0.52406579 -0.33426937 0.034574091
-0.013693595 -0.32511652 0.035104141
-0.0045585586 -0.3252714 0.034912702
0.0048102397 -0.32562163 0.036635369
0.01567639 -0.32615232 0.036850594
0.025247673 -0.32473239 0.035967294
0.035476573 -0.32667834 0.035002477
0.042393919 -0.32465652 0.035094731
0.47512794 -0.32721084 0.03472228
0.48552451 -0.32549301 0.033782169
0.49406978 -0.32574633 0.036023848
0.50545502 -0.32693401 0.035549112
0.51562303 -0.32520804 0.034678239
0.52524251 -0.32492718 0.035125662
-0.011714399 -0.31162369 0.033040613
-0.0045015663 -0.31465647 0.034552839
0.005494751 -0.3155371 0.038303815
0.015404031 -0.31669927 0.038518321
0.026140684 -0.31582573 0.037998151
0.035650507 -0.31416142 0.036481395
0.042583998 -0.3152951 0.034107856
0.46997648 -0.31396556 0.031716466
0.47482669 -0.31426945 0.035508007
0.48660216 -0.31551453 0.035156451
0.4905538 -0.31527656 0.033998247
0.51753014 -0.31401962 0.035122149
0.52588481 -0.3144899 0.035623647
-0.011467513 -0.30534837 0.03495799
-0.0038771096 -0.30403468 0.034466505
0.0046642763 -0.304555 0.035753425
0.014519176 -0.30346477 0.036789246
0.025917541 -0.30607873 0.036268275
0.034522157 -0.3026323 0.034662049
0.04250183 -0.30622661 0.034473818
0.47655916 -0.30529881 0.033195805
0.48704448 -0.30448654 0.034484189
0.49572882 -0.30182531 0.036765981
0.50589967 -0.30116525 0.032215826
0.51625997 -0.30466601 0.034060407
0.5254547 -0.30523324 0.034987293
-0.012522459 -0.29624382 0.03513369
-0.0035376491 -0.29532498 0.033442475
0.0054227458 -0.29444164 0.03364687
0.013069566 -0.29516089 0.0343103
0.02429508 -0.29458293 0.034264807
0.035856199 -0.29473168 0.03439676
0.041076735 -0.29626542 0.033952549
0.47411633 -0.29421633 0.032514036
0.48589069 -0.29413775 0.033323593
0.49431473 -0.29255709 0.034717593
0.50369489 -0.29277295 0.035201024
0.51446414 -0.29417098 0.034262266
0.52355385 -0.29504082 0.03474313
0.017177463 -0.28928021 0.037189901
0.024472773 -0.28961974 0.032435372
0.48488441 -0.28927654 0.034166344
0.49844801 -0.28886166 0.033699539
0.50480574 -0.28956157 0.034460753
0.51333648 -0.28935224 0.034100391
0.52142096 -0.28988141 0.031152058
0.24435203 -0.24441566 0.038065027
0.25696909 -0.24624377 0.038234971
0.26432177 -0.24300866 0.037953485
0.2376669 -0.23468021 0.039614789
0.24503981 -0.23353155 0.035055052
0.25529805 -0.23576559 0.033760861
0.26459616 -0.23667488 0.035319757
0.27384576 -0.23396054 0.035865925
0.28006625 -0.23009729 0.035867512
0.22943491 -0.22655363 0.039055467
0.23719828 -0.22671261 0.035887275
0.24648002 -0.22395168 0.034898378
0.25086436 -0.22494251 0.033618502
0.26683724 -0.22415872 0.035868645
0.27656096 -0.22440098 0.034927875
0.28103876 -0.22657299 0.035061922
0.2291007 -0.21270657 0.039980888
0.23713976 -0.21477592 0.035597824
0.24587706 -0.21567705 0.034515247
0.25344139 -0.2121356 0.035960402
0.26730186 -0.21468982 0.034566645
0.2762256 -0.21491812 0.035916734
0.28099048 -0.21750794 0.033423685
0.23920143 -0.20156954 0.039259195
0.24675937 -0.2064099 0.035505652
0.25509879 -0.20670243 0.03475824
0.26437905 -0.2066794 0.034902886
0.27347806 -0.20694713 0.035379779
0.24949853 -0.19830805 0.036215484
0.25649673 -0.19824581 0.038801137
0.26013774 -0.19720493 0.039523721
0.08076492 -0.05229032 0.030271709
0.092913836 -0.051597953 0.035027832
0.10486183 -0.050410062 0.032607898
0.11097558 -0.052153468 0.030509591
0.12959498 -0.052216411 0.035949163
0.13633955 -0.0511657 0.031456433
0.39441541 -0.051209409 0.0364119
0.40646315 -0.050120473 0.032919735
0.42368618 -0.050993502 0.031842113
0.079010576 -0.041893244 0.038742423
0.084417358 -0.042883046 0.034322061
0.095997483 -0.045074258 0.033110984
0.10592233 -0.044424411 0.034004699
0.11505598 -0.044779427 0.034146804
0.12595801 -0.046305966 0.034812804
0.13298771 -0.044278767 0.034651473
0.37987027 -0.040027559 0.031670153
0.38638043 -0.046401106 0.034874678
0.39492872 -0.045774676 0.033950459
0.40609127 -0.046255678 0.034749478
0.41484311 -0.046429001 0.035372995
0.4252249 -0.045168553 0.033770584
0.43264249 -0.045502502 0.033805218
0.076635435 -0.036024183 0.036564142
0.086530291 -0.036153518 0.03424539
0.092944942 -0.03626129 0.035865985
0.10438624 -0.034777414 0.037460532
0.11439423 -0.035089508 0.036230378
0.12415104 -0.034546822 0.034390766
0.13336658 -0.035423197 0.034712251
0.37498555 -0.033615112 0.03137219
0.38707703 -0.0352684 0.034045115
0.3932583 -0.035490911 0.034130685
0.4059037 -0.032585919 0.03564427
0.41878256 -0.032034278 0.035165742
0.42466778 -0.036327459 0.035327859
0.43302551 -0.036380675 0.034924053
0.078090899 -0.025097847 0.036906641
0.085602202 -0.024625164 0.03393843
0.093032412 -0.025412794 0.03663934
0.10488052 -0.024642542 0.03886088
0.11704714 -0.026348127 0.036974013
0.12427346 -0.024176514 0.035573527
0.13407415 -0.025344117 0.035295248
0.37845406 -0.027207261 0.033017714
0.3857263 -0.026203854 0.035185017
0.39339229 -0.024818847 0.035762914
0.40203151 -0.023971081 0.036582291
0.4168461 -0.02757388 0.037069783
0.42562762 -0.025429528 0.035667226
0.4330444 -0.026094884 0.034900393
0.079068944 -0.013808857 0.03641047
0.085482329 -0.014944141 0.034972485
0.094750009 -0.015662696 0.034797706
0.10475904 -0.01289741 0.035858169
0.11575297 -0.013293994 0.035236694
0.12516439 -0.014816529 0.035532184
0.13274412 -0.014315198 0.035393976
0.37863219 -0.015740158 0.031388879
0.38714269 -0.01503057 0.035594437
0.39584482 -0.014205978 0.035292927
0.4042722 -0.012547022 0.034208287
0.41623077 -0.01415218 0.035410222
0.42568243 -0.014894885 0.034833673
0.43251836 -0.014277116 0.034207508
0.086748622 -0.0076710531 0.034694437
0.094941422 -0.0073415418 0.032942716
0.10496061 -0.0066131437 0.034173444
0.11441144 -0.0082009733 0.034182169
0.125322 -0.006874776 0.034888256
0.132108 -0.0071933581 0.032933451
0.37999535 -0.0085870624 0.03057766
0.38603148 -0.0067500556 0.034365427
0.39590105 -0.006550929 0.035176739
0.40423727 -0.0060588638 0.034287896
0.4147549 -0.0068183504 0.034463812
0.42466328 -0.0068253679 0.034082707
0.4320921 -0.0075601861 0.03310832
0.23945166 -0.51210356 0.043469504
0.24501796 -0.51254529 0.041700363
0.25388908 -0.51236761 0.041893885
0.26830953 -0.51222241 0.04257673
0.27082756 -0.51290309 0.040978357
0.28219223 -0.51151532 0.041872472
0.23575231 -0.50560999 0.045134064
0.24579443 -0.50528574 0.044674259
0.25537965 -0.5055964 0.045971021
0.26428819 -0.50596595 0.04556296
0.27656636 -0.50546306 0.044223979
0.28227362 -0.50588715 0.044913389
0.23413427 -0.4941203 0.045863949
0.24641472 -0.49379125 0.046372607
0.25679794 -0.49434081 0.045290079
0.26377463 -0.49663416 0.0455935
0.27633712 -0.4933753 0.044063151
0.28289258 -0.49628392 0.044993281
0.2345058 -0.48683161 0.0454215
0.24652 -0.48630267 0.045757845
0.25423998 -0.48430231 0.045259755
0.26475272 -0.48511595 0.046730794
0.27739528 -0.48595756 0.041800298
0.28359827 -0.48497698 0.044112399
0.23213395 -0.47764832 0.04509297
0.24626599 -0.47519624 0.045915078
0.25558081 -0.47361004 0.046092745
0.26524991 -0.47304201 0.045089457
0.27500999 -0.47446194 0.0447721
0.28247645 -0.47551584 0.042993143
0.23489591 -0.46793264 0.042013511
0.24452706 -0.46833363 0.042509601
0.25583389 -0.46820518 0.04631054
0.26418799 -0.46810365 0.045521844
0.27544507 -0.46832228 0.042882144
0.28118914 -0.46876889 0.041059121
-0.0042119808 -0.33261901 0.045183323
0.0049164444 -0.33421391 0.042912044
0.015708743 -0.33315247 0.045354843
0.027103705 -0.33411783 0.044082668
0.036626186 -0.33267662 0.041710526
0.47942451 -0.33222342 0.043438733
0.48521048 -0.33294782 0.04282603
0.49475354 -0.33374074 0.043950252
0.50485045 -0.33304724 0.043533403
0.51515144 -0.33264393 0.044920664
0.52449816 -0.3317706 0.04343937
-0.012469308 -0.32445377 0.044225097
-0.0077019571 -0.32464457 0.044551302
0.0035204571 -0.32468742 0.045034286
0.015397643 -0.32744953 0.045121465
0.023729092 -0.3259953 0.043750614
0.035525676 -0.32618895 0.044471696
0.041347522 -0.32416549 0.043708745
0.47527388 -0.32463273 0.043661062
0.48571867 -0.32643059 0.045928735
0.49499637 -0.32725173 0.045732662
0.50274771 -0.3256233 0.044675514
0.51464951 -0.3258107 0.044992991
0.5231663 -0.32462484 0.044892609
-0.011985595 -0.31605983 0.044488858
-0.0055892197 -0.31376064 0.043731354
0.0050754366 -0.31433928 0.043789551
0.014698709 -0.31429598 0.044483386
0.025615668 -0.31605396 0.044240348
0.036416173 -0.31418958 0.04330292
0.041975796 -0.31462315 0.043710843
0.47403485 -0.31638131 0.044312418
0.48662311 -0.31650525 0.047308452
0.49433014 -0.31415823 0.046508435
0.50488228 -0.31575489 0.045702353
0.51505607 -0.31294474 0.045516785
0.52401328 -0.31495154 0.044946037
-0.012769576 -0.30761763 0.044341784
-0.0055783316 -0.3055867 0.044575155
0.0045423014 -0.30597875 0.044780508
0.013967831 -0.30484134 0.044217888
0.025109902 -0.30304044 0.044501979
0.036081262 -0.30365717 0.04566218
0.041301504 -0.30508828 0.043134615
0.47545367 -0.30368155 0.043395687
0.48514229 -0.30443493 0.044022221
0.49401325 -0.3039698 0.046651348
0.50506026 -0.30460691 0.045108516
0.51478535 -0.30370402 0.045472417
0.52359653 -0.30448139 0.044987291
-0.010638937 -0.29552227 0.042461947
-0.0035419166 -0.29586008 0.044588998
0.0050428296 -0.2952868 0.046035141
0.015589068 -0.29661655 0.044953339
0.023387387 -0.29652214 0.044908822
0.035070095 -0.29674488 0.043140605
0.041214455 -0.2987107 0.041525811
0.47766754 -0.29582691 0.044434953
0.48364249 -0.29569888 0.045695916
0.49445319 -0.29363778 0.044177357
0.50510883 -0.29589319 0.045147214
0.5144546 -0.29506978 0.043939222
0.52280635 -0.29684052 0.042906448
0.505777 -0.28995982 0.040180027
0.5101189 -0.28938171 0.049769461
0.2361255 -0.24297428 0.043239355
0.24702089 -0.24317195 0.045792129
0.25558084 -0.24366567 0.04560639
0.26544854 -0.24435796 0.044775166
0.27454564 -0.24313678 0.045597263
0.28228939 -0.24205792 0.049935579
0.22824624 -0.23418033 0.046841145
0.23686218 -0.23428489 0.046093192
0.24560408 -0.23527093 0.045116525
0.25507024 -0.2363735 0.043518595
0.2642605 -0.23698193 0.044821613
0.27468202 -0.23452923 0.044624176
0.2835137 -0.23417518 0.045743417
0.29044649 -0.23325378 0.049974866
0.22926059 -0.22125018 0.046973765
0.23514679 -0.22435933 0.044002198
0.24498935 -0.22523122 0.044581283
0.25120115 -0.22882231 0.044753373
0.2762571 -0.22460502 0.045819256
0.28402197 -0.22458942 0.045590825
0.29005957 -0.22480595 0.048183739
0.23560499 -0.21599515 0.044566583
0.24394265 -0.21458553 0.044792738
0.25394008 -0.2146306 0.043608934
0.26651073 -0.21369974 0.048483431
0.27528048 -0.21531084 0.044530872
0.28465387 -0.21486129 0.045899007
0.29006898 -0.21780455 0.042131625
0.22862476 -0.20921078 0.041577935
0.23678249 -0.20723388 0.044281859
0.24569841 -0.20572354 0.04536961
0.25464875 -0.20547448 0.04449641
0.26472381 -0.20562552 0.045234591
0.27369168 -0.20547622 0.045784671
0.28190503 -0.20627058 0.047823336
0.24631879 -0.19950557 0.049329817
0.25659826 -0.19754696 0.045475814
0.26506138 -0.19770475 0.044589046
0.27278456 -0.19954848 0.046829745
0.10286528 -0.050602555 0.043479711
0.1129545 -0.052154899 0.040233493
0.41123545 -0.050706387 0.043023169
0.089947775 -0.04076457 0.04110074
0.10634036 -0.043579638 0.043836337
0.1146143 -0.043501589 0.044870414
0.12396816 -0.044458628 0.043188345
0.13242319 -0.042175941 0.041516408
0.38686427 -0.043430816 0.041883063
0.39557391 -0.045282342 0.043819822
0.40377545 -0.043517143 0.044940095
0.41361856 -0.044745352 0.044162508
0.42467529 -0.043640167 0.044000015
0.43165579 -0.042032793 0.044155553
0.079778969 -0.033643723 0.041088939
0.087982908 -0.031746566 0.043292999
0.097034246 -0.036897436 0.044507354
0.10737251 -0.036038421 0.043277182
0.11575261 -0.03523498 0.041302979
0.12516229 -0.035547856 0.044473898
0.13402148 -0.033900045 0.044640642
0.38341567 -0.038339615 0.048015475
0.39572287 -0.036559489 0.046242371
0.40455049 -0.035921883 0.0467893
0.41578346 -0.035444848 0.045765299
0.42613155 -0.034908038 0.044932425
0.43213245 -0.036464334 0.043498244
0.078972206 -0.029887915 0.044204473
0.08459688 -0.024774091 0.043461788
0.094846308 -0.026039051 0.042898919
0.10600457 -0.023120018 0.046190232
0.1148177 -0.024554625 0.044836506
0.12395404 -0.023934076 0.046049707
0.13144684 -0.027138814 0.043999128
0.38629034 -0.02321122 0.04337268
0.39589295 -0.026181718 0.046857584
0.40532514 -0.025107665 0.047354329
0.41567075 -0.024766708 0.046830114
0.42649963 -0.025649408 0.045609005
0.43252996 -0.025385559 0.04376686
0.078826353 -0.015013069 0.042710781
0.087040938 -0.013643917 0.042101849
0.096713625 -0.012074332 0.044570204
0.10536347 -0.014478997 0.044164758
0.11416442 -0.012655835 0.045173801
0.12387176 -0.013686773 0.044841517
0.13235915 -0.01728774 0.042781256
0.38550147 -0.014163817 0.044589791
0.395823 -0.014544329 0.045577008
0.40549147 -0.013654505 0.04543554
0.4146224 -0.013349924 0.045812938
0.42604667 -0.013737713 0.044633437
0.43159029 -0.016737003 0.043813549
0.08877632 -0.0073199421 0.042231068
0.098837674 -0.0073795915 0.042712033
0.10513673 -0.0083147055 0.045624018
0.11404411 -0.0089754462 0.044344418
0.12137252 -0.0099380016 0.046241254
0.13019401 -0.0097529292 0.041818887
0.38946539 -0.0078451633 0.040085644
0.39522535 -0.0078971107 0.044323713
0.4049117 -0.0078293616 0.0448227
0.41364893 -0.0085846763 0.044857748
0.42393163 -0.0079334779 0.04207091
0.43209571 -0.0060670376 0.041100416
0.23913449 -0.5015415 0.052963853
0.24465068 -0.50302881 0.051819224
0.25264949 -0.50510859 0.051599413
0.26807165 -0.50097632 0.051382113
0.27144629 -0.50358254 0.051873013
0.23653574 -0.49524078 0.052706402
0.24506104 -0.49535567 0.053549528
0.25509 -0.49550471 0.053334959
0.26602662 -0.49584144 0.052263968
0.27438676 -0.49471202 0.053313106
0.28193086 -0.49200365 0.051720966
0.23900086 -0.48699659 0.054385006
0.24672468 -0.48475096 0.053597152
0.25579765 -0.4849748 0.054627337
0.2648305 -0.48543701 0.054767061
0.27420852 -0.48470998 0.053661499
0.28241694 -0.48251837 0.051162869
0.2377255 -0.47742414 0.053672597
0.24436474 -0.47651556 0.053821526
0.25449586 -0.47509471 0.055572599
0.26544303 -0.47404987 0.054285027
0.27286905 -0.47575557 0.053982757
0.24655227 -0.46583781 0.056565791
0.25422832 -0.46689439 0.056966085
0.26525778 -0.46659297 0.056567118
0.24805382 -0.45683837 0.059514284
0.25392279 -0.45639691 0.058280982
0.26347053 -0.45497572 0.058312215
0.24838234 -0.44253233 0.058837701
0.25675866 -0.44589892 0.05823759
0.26420325 -0.44574824 0.058202703
0.24927679 -0.43061143 0.058942825
0.25641325 -0.43345642 0.058447845
0.26580769 -0.43594384 0.058219802
0.24989682 -0.42940676 0.059026122
0.2559641 -0.42279938 0.059682176
0.26342258 -0.42584991 0.058589868
0.24541155 -0.41454828 0.059821457
0.25234041 -0.41513073 0.058806021
0.26428354 -0.41483754 0.058689184
0.24585634 -0.40604892 0.058811575
0.26504868 -0.40535823 0.059279293
0.25458324 -0.39680797 0.059310481
0.26261878 -0.39892107 0.059921861
0.26624298 -0.38235766 0.059466142
0.25962991 -0.37715387 0.059253935
-0.0040513477 -0.32268682 0.054987907
0.005854696 -0.32652161 0.053459093
0.015001344 -0.32522616 0.051753569
0.025281465 -0.32398289 0.053490926
0.032862663 -0.32441968 0.052559011
0.040263414 -0.32308623 0.0507349
0.47628486 -0.32321322 0.051360667
0.48609307 -0.32215682 0.050519049
0.49347782 -0.32253793 0.052151415
0.50462115 -0.32406595 0.051836088
0.5135386 -0.32440412 0.051510844
0.52227211 -0.3234027 0.051883355
-0.003508846 -0.31335539 0.055143338
0.0052234367 -0.3128548 0.055501115
0.014467143 -0.31394449 0.055016611
0.023301361 -0.31375954 0.054381914
0.03542586 -0.31553876 0.053187389
0.041042626 -0.31661797 0.050269306
0.4770439 -0.31504294 0.052404743
0.48641437 -0.31540403 0.053137798
0.49438688 -0.31437722 0.054052807
0.50418359 -0.3149623 0.05302792
0.51608604 -0.31446046 0.053205498
0.52384639 -0.31288838 0.052318648
-0.0019957076 -0.30440998 0.054006651
0.0067009651 -0.30558309 0.053640198
0.013556842 -0.30490136 0.055524178
0.025249394 -0.3056213 0.055382278
0.033514906 -0.30462831 0.054177012
0.46688837 -0.30168906 0.059248716
0.47765812 -0.30336636 0.056202967
0.48583007 -0.30523488 0.054319404
0.49596852 -0.30462888 0.05463231
0.5049451 -0.30616668 0.054406106
0.51435202 -0.30398569 0.054567866
0.52167213 -0.30662313 0.052403819
-0.0024495274 -0.29645127 0.057002842
0.005768626 -0.29659986 0.054644946
0.014573478 -0.29518434 0.054576669
0.023826897 -0.29484522 0.055170979
0.031972568 -0.29421034 0.058709253
0.04447611 -0.29669544 0.059103087
0.05273037 -0.29708725 0.057659738
0.062071763 -0.29337448 0.059965104
0.073545188 -0.29114917 0.059253436
0.43566182 -0.29205698 0.059300244
0.4470005 -0.29432496 0.059400827
0.45424658 -0.29442972 0.058392439
0.46503177 -0.2971555 0.059648976
0.47534141 -0.29465619 0.057591926
0.48536974 -0.29448715 0.057790451
0.49635467 -0.29488242 0.055114582
0.50500113 -0.29585025 0.054781396
0.51258379 -0.29548219 0.056987669
0.0084647033 -0.28995478 0.052174211
0.024896747 -0.2882804 0.059503518
0.036951255 -0.28680512 0.058955193
0.045371216 -0.28563589 0.058487851
0.053983953 -0.28313288 0.058870018
0.063858613 -0.28169593 0.057971917
0.075365983 -0.28580135 0.058895916
0.083184727 -0.28424993 0.059550323
0.091577023 -0.28784066 0.059146486
0.40270394 -0.28088379 0.059083998
0.41408539 -0.28233892 0.059283808
0.42468244 -0.28833199 0.059227645
0.43537086 -0.28492451 0.058466386
0.44510993 -0.28478968 0.058534119
0.45610669 -0.28418025 0.05704065
0.46491688 -0.28642011 0.059146531
0.47727278 -0.28623286 0.057868008
0.4832454 -0.28398618 0.05739798
0.49522206 -0.28874591 0.056726128
0.50382704 -0.28899071 0.056360643
0.056258913 -0.27836111 0.058725014
0.067693904 -0.27767879 0.058261275
0.075765699 -0.27651876 0.059075065
0.086452328 -0.27699736 0.059128158
0.090929851 -0.27222922 0.058766361
0.1142988 -0.27357176 0.059129003
0.39239943 -0.27504432 0.059910424
0.40836874 -0.27801231 0.057975326
0.41597822 -0.27545661 0.058345061
0.42193237 -0.27574512 0.059630692
0.43471372 -0.27440515 0.057743255
0.44515425 -0.2757948 0.059375435
0.45287815 -0.27777305 0.058415789
0.095489979 -0.26428512 0.059792243
0.10581311 -0.26666763 0.059446674
0.11211804 -0.26666391 0.059556462
0.38665485 -0.26928157 0.059052069
0.40330479 -0.26948535 0.059400827
0.41615582 -0.26745379 0.05843747
0.1345405 -0.25227988 0.059957311
0.25064468 -0.25179631 0.059068486
0.26127994 -0.25243098 0.059328005
0.36972448 -0.25904739 0.059989445
0.38965762 -0.25674081 0.057537496
0.39257145 -0.25766632 0.059427027
0.16326971 -0.24461001 0.05912298
0.23430601 -0.2403177 0.052506447
0.24422207 -0.24374437 0.055315662
0.25494015 -0.24420883 0.054634795
0.26564991 -0.24550202 0.056437928
0.27587891 -0.24259926 0.054485951
0.28150409 -0.24137163 0.054091766
0.35193786 -0.24189305 0.058929145
0.22840032 -0.23554805 0.055791646
0.2352645 -0.23504849 0.055836316
0.24540678 -0.23688178 0.054175984
0.25654626 -0.23928419 0.051473856
0.26488075 -0.23928201 0.051828247
0.27677891 -0.23565264 0.054269575
0.28473264 -0.23455456 0.056877166
0.22842169 -0.22632538 0.05500783
0.23654553 -0.22600964 0.055582818
0.24294274 -0.22720206 0.053486776
0.27670217 -0.22528151 0.054266486
0.28595436 -0.22470476 0.05623889
0.29047245 -0.22485107 0.056781366
0.2280847 -0.21523207 0.055794835
0.23700114 -0.21575473 0.055699546
0.24292019 -0.2145482 0.055999096
0.27636948 -0.2143248 0.053378746
0.2856617 -0.21469608 0.055732347
0.29045737 -0.21477157 0.059837364
0.22921103 -0.20613718 0.050303578
0.23653024 -0.2061912 0.056199644
0.24545658 -0.20548686 0.053719562
0.25481924 -0.20337169 0.052916236
0.26607946 -0.20487601 0.052462079
0.27564201 -0.20357533 0.055642612
0.2814728 -0.2061184 0.055276632
0.23905826 -0.19720492 0.054720044
0.24618895 -0.19704893 0.055587105
0.25691921 -0.19806272 0.05388438
0.26554674 -0.19765784 0.054964632
0.27445039 -0.19914134 0.053979274
0.18490782 -0.13510785 0.059723537
0.18250644 -0.12073147 0.059812337
0.1653538 -0.1048604 0.05981924
0.17566004 -0.10640857 0.058681704
0.32708868 -0.10891819 0.059675992
0.33559993 -0.10493471 0.05878377
0.34131762 -0.10198247 0.05823908
0.33653039 -0.095653206 0.0583224
0.34445179 -0.094476297 0.05948551
0.3515909 -0.091675192 0.058996975
0.14625904 -0.087458134 0.059287474
0.15574259 -0.085086495 0.059412405
0.16019377 -0.08678627 0.05887888
0.17025249 -0.084189296 0.058287323
0.35078859 -0.083321989 0.0591169
0.36459336 -0.08376655 0.05881555
0.13998318 -0.070646584 0.05711142
0.14065407 -0.076598078 0.058196954
0.15774108 -0.076437563 0.057908714
0.1604013 -0.074027658 0.05941081
0.35411203 -0.075803578 0.059203535
0.36618742 -0.073034555 0.057840217
0.12589119 -0.064780951 0.058425665
0.13676721 -0.066671781 0.059317604
0.14368314 -0.066363774 0.058550574
0.15974438 -0.069626808 0.059006363
0.35728067 -0.068287134 0.057987511
0.3676056 -0.065204956 0.058885008
0.37368041 -0.06818518 0.059640944
0.38578629 -0.060787857 0.057837766
0.11570373 -0.050478339 0.056387454
0.12575522 -0.054114047 0.058789838
0.13537204 -0.057313964 0.058367517
0.14295174 -0.054879796 0.058899712
0.35970443 -0.057729229 0.057670593
0.36861649 -0.056650687 0.057975113
0.37531099 -0.055180568 0.058470186
0.38337106 -0.058991134 0.057903111
0.39171132 -0.05438602 0.059247553
0.087065756 -0.04583931 0.051249385
0.095576942 -0.045547724 0.05060333
0.10572532 -0.040924072 0.055618048
0.11789241 -0.045265991 0.052611899
0.12370201 -0.044560175 0.057161134
0.13680904 -0.045840107 0.059079126
0.14345561 -0.049311087 0.05786163
0.37568679 -0.044380106 0.057388686
0.38433826 -0.044163298 0.057420973
0.39670208 -0.041268189 0.054300319
0.40530384 -0.040212333 0.053480402
0.41751951 -0.043273449 0.052803457
0.42113864 -0.042343855 0.052405238
0.087583184 -0.036056712 0.052961826
0.093711652 -0.035123125 0.054289479
0.10455367 -0.033930279 0.055805609
0.11562774 -0.034664717 0.057212174
0.12448876 -0.034836475 0.055436693
0.1366058 -0.036401235 0.059368059
0.37953049 -0.03349521 0.05795151
0.38613597 -0.034877662 0.054287471
0.39571252 -0.036057994 0.054310601
0.40413499 -0.033689 0.056286369
0.41389623 -0.035983853 0.052526567
0.42455181 -0.034699891 0.052851144
0.4326053 -0.033812284 0.053878665
0.089761764 -0.020170689 0.050721407
0.096764036 -0.024779554 0.053413793
0.10567142 -0.023897696 0.05532166
0.11474124 -0.025677584 0.054662608
0.12390663 -0.024995517 0.054851752
0.1321004 -0.026349902 0.051449582
0.38550913 -0.026794385 0.055253722
0.39612478 -0.025905456 0.055548597
0.40499014 -0.023566144 0.054182846
0.41507092 -0.025800345 0.054644622
0.42559972 -0.025245959 0.053460356
0.43366826 -0.022052884 0.05151879
0.085623533 -0.016997159 0.05122
0.095146097 -0.014889596 0.053776171
0.10446754 -0.014450192 0.054896515
0.11539645 -0.014187148 0.056244951
0.12386981 -0.016217437 0.05371787
0.38833654 -0.017732143 0.05349452
0.39486495 -0.014584116 0.055590011
0.40551716 -0.013858118 0.055091489
0.41485274 -0.014129558 0.054945331
0.42301774 -0.016905665 0.053615525
0.4304089 -0.019469023 0.05138275
0.095716707 -0.0073080659 0.05663836
0.10561769 -0.0080493484 0.053896893
0.11426186 -0.0081383502 0.055603344
0.12002934 -0.0092861503 0.055056095
0.3956598 -0.0057920851 0.056189388
0.40604568 -0.0076667545 0.053644508
0.41240308 -0.0068503884 0.056258533
0.42073932 -0.0080192685 0.052575022
0.24513343 -0.48397622 0.064334653
0.255844 -0.48498675 0.064439215
0.26443583 -0.48642564 0.06517487
0.2720468 -0.48331681 0.064865731
0.24610935 -0.47459733 0.064724617
0.25495073 -0.47538257 0.066103607
0.26594058 -0.47488645 0.06446626
0.27256784 -0.4754844 0.064865366
0.24712607 -0.46467811 0.06492354
0.25485873 -0.46624282 0.065220699
0.26648694 -0.46610087 0.06530796
0.27140829 -0.4667128 0.064133361
0.24631296 -0.45597658 0.06505879
0.25549436 -0.45523727 0.065963775
0.26594007 -0.45587108 0.06509161
0.27163431 -0.45541239 0.066653825
0.24619576 -0.44584081 0.065243281
0.25448769 -0.44545865 0.065236568
0.26510537 -0.44556734 0.064789213
0.27171817 -0.44628137 0.064734563
0.24604295 -0.43405184 0.066020548
0.25564188 -0.43491471 0.06596411
0.26578063 -0.43564206 0.064587332
0.27175865 -0.4339923 0.065858617
0.2462495 -0.42483878 0.065681808
0.25531885 -0.42413557 0.065756589
0.26613715 -0.42466119 0.064999536
0.27195397 -0.42389259 0.066604733
0.24588065 -0.41606039 0.065909848
0.25514531 -0.41521403 0.065323703
0.26560637 -0.41442955 0.064570487
0.27202517 -0.41485325 0.064745173
0.2464962 -0.40599042 0.065642044
0.2551218 -0.4052763 0.065284789
0.26524463 -0.40580422 0.0653589
0.27094606 -0.40541866 0.06366048
0.24598183 -0.39452606 0.065918237
0.25538686 -0.3951073 0.065988906
0.26521111 -0.39535579 0.065601878
0.27103519 -0.39733014 0.064424954
0.24575169 -0.38592714 0.065240599
0.25535494 -0.38502809 0.065760642
0.26472241 -0.38498244 0.065001309
0.27066413 -0.38661155 0.064936556
0.24551763 -0.37532419 0.066309385
0.25559938 -0.37431166 0.065583006
0.26594907 -0.37388587 0.065623544
0.27218437 -0.376268 0.065350495
0.24581945 -0.36424246 0.065144449
0.25545159 -0.36459324 0.06550324
0.26498067 -0.36408156 0.065749697
0.2712878 -0.36703438 0.065138161
0.2463502 -0.35516965 0.065955773
0.25596949 -0.35440773 0.06601052
0.26553109 -0.35489249 0.065755598
0.27200451 -0.35752156 0.066508077
0.24624875 -0.3456313 0.06591697
0.25548118 -0.34412226 0.066153094
0.26567778 -0.34444401 0.065727219
0.27161247 -0.34689617 0.065912306
0.24745575 -0.33533865 0.064696349
0.25542474 -0.33439642 0.066491596
0.26526287 -0.33528653 0.065651163
0.27053177 -0.33472684 0.066184729
0.24634111 -0.32494372 0.065040052
0.25596619 -0.32504159 0.06628757
0.26500666 -0.32607883 0.065729775
0.27097374 -0.32635507 0.067938805
0.0049318909 -0.31182534 0.066027641
0.015167966 -0.31096628 0.065274216
0.024164082 -0.31110868 0.062487915
0.24641718 -0.31533682 0.066125482
0.25583437 -0.31466499 0.065924831
0.2652472 -0.31523633 0.065825894
0.2737892 -0.31697676 0.06881541
0.48901129 -0.31152922 0.063957304
0.49184194 -0.31097639 0.061483264
0.50482589 -0.31034365 0.064356916
0.51210761 -0.31093249 0.066816546
-0.0014229268 -0.3067044 0.06104672
0.0050708456 -0.30491737 0.065028727
0.012597107 -0.30703217 0.066092938
0.025854627 -0.30589163 0.064808808
0.034702182 -0.30484635 0.065464921
0.044551216 -0.30268607 0.065441884
0.055330399 -0.30116972 0.067532487
0.24606946 -0.30285531 0.066153333
0.25635916 -0.30557093 0.065600492
0.26582509 -0.30528235 0.065680154
0.27160075 -0.30527371 0.067237496
0.46401739 -0.30098861 0.064801283
0.47840407 -0.30250338 0.064662382
0.48720115 -0.30393499 0.065276615
0.49353307 -0.30518806 0.064600185
0.50496054 -0.30587187 0.064760983
0.51376426 -0.30483705 0.066324994
-0.00076913834 -0.29527074 0.063150883
0.0068769967 -0.29539645 0.065406851
0.015142285 -0.2944487 0.064958826
0.025989342 -0.29356176 0.064804815
0.035036769 -0.2953603 0.064165935
0.045557115 -0.29512754 0.06455151
0.055134002 -0.29482219 0.064449966
0.064570881 -0.2947726 0.065429837
0.073218122 -0.29268321 0.066799693
0.083033942 -0.29151249 0.068454005
0.24757519 -0.29616275 0.064536728
0.25594562 -0.29587197 0.066553704
0.26484033 -0.29550254 0.066423103
0.27104273 -0.29599494 0.069141805
0.43728334 -0.29152328 0.065998584
0.44467756 -0.29229793 0.064651281
0.45598847 -0.29362938 0.066991612
0.46538052 -0.29481035 0.065313883
0.47527751 -0.2952787 0.06458009
0.48636785 -0.29602018 0.064547293
0.49602538 -0.29391113 0.065103851
0.50539005 -0.29298082 0.064856581
0.51318318 -0.29632813 0.065478064
0.0058118752 -0.28974688 0.062514044
0.017487334 -0.28835598 0.067309901
0.025580952 -0.28723374 0.066119365
0.034917738 -0.28573182 0.065764822
0.045646369 -0.28446692 0.065056778
0.055597372 -0.28430855 0.064807415
0.065092474 -0.28581566 0.064292759
0.075747192 -0.28612635 0.064373016
0.085238397 -0.28531244 0.065140374
